ply
format ascii 1.0
element vertex 1068
property float x
property float y
property float z
property uchar red
property uchar green
property uchar blue
end_header
80.385017 86.435501 -459.836884 140 127 94 
84.493690 88.940727 -473.164642 131 117 91 
87.885986 90.604111 -482.013885 122 116 94 
90.254578 91.166245 -485.004395 103 94 79 
91.335068 90.430763 -481.091644 97 85 75 
90.960770 88.311424 -469.816803 59 53 39 
89.103775 84.860741 -451.459137 163 151 125 
85.885590 80.266907 -427.019958 171 164 135 
81.551834 74.818199 -398.032806 132 124 87 
76.420975 68.847725 -366.269897 146 133 89 
72.437729 64.104179 -341.034241 155 142 98 
73.719810 64.104179 -341.034241 156 145 100 
75.001892 64.104179 -341.034241 158 145 100 
76.283981 64.104179 -341.034241 159 145 98 
77.566063 64.104179 -341.034241 154 140 93 
78.848145 64.104179 -341.034241 158 144 97 
80.130226 64.104179 -341.034241 162 148 99 
81.412315 64.104179 -341.034241 169 156 104 
82.694397 64.104179 -341.034241 170 156 109 
83.976479 64.104179 -341.034241 170 156 110 
-74.986839 55.253460 -299.947357 200 180 121 
-73.751778 55.173084 -299.511017 198 179 120 
-72.808853 55.312153 -300.265991 198 182 120 
-72.118980 55.650864 -302.104706 198 179 123 
-71.649246 56.173008 -304.939178 201 182 124 
-71.371017 56.864716 -308.694183 206 191 132 
-71.258362 57.713383 -313.301239 172 158 97 
-71.286682 58.706680 -318.693420 167 153 92 
-71.431641 59.831635 -324.800293 166 151 90 
-71.668076 61.073666 -331.542755 164 149 90 
-71.969086 62.415668 -338.827911 165 150 93 
-72.305244 63.837059 -346.544037 165 150 90 
-72.643829 65.312798 -354.555206 165 150 91 
-72.948387 66.812538 -362.696625 168 153 96 
-73.178505 68.299934 -370.771088 165 150 91 
-73.290054 69.732285 -378.546692 169 154 95 
-73.235909 71.060585 -385.757477 171 156 97 
-72.967422 72.230377 -392.107758 168 153 94 
-72.436592 73.183365 -397.281128 166 151 94 
-71.599007 73.860023 -400.954437 171 152 94 
-70.417305 74.203186 -402.817291 169 153 94 
-68.867149 74.164619 -402.607941 173 153 99 
-66.978470 73.751572 -400.365692 171 152 96 
-64.825432 73.021751 -396.403809 172 151 94 
-62.483109 72.039352 -391.070740 194 171 117 
-60.021786 70.869095 -384.717957 207 182 128 
-57.504009 69.572754 -377.680634 210 185 131 
-54.983028 68.206795 -370.265442 204 181 131 
-52.502361 66.821190 -362.743591 197 175 128 
-50.096214 65.459053 -355.349152 203 180 139 
-47.790409 64.156990 -348.280792 186 159 129 
-45.603588 62.945797 -341.705750 206 97 69 
-43.545723 61.847549 -335.743835 207 78 47 
-41.618462 60.874767 -330.463013 218 88 56 
-39.821232 60.038166 -325.921478 215 84 54 
-38.152321 59.348053 -322.175140 210 82 53 
-36.609341 58.815006 -319.281464 192 85 54 
-35.189667 58.450634 -317.303436 100 56 43 
-33.890774 58.268349 -316.313873 119 77 48 
-32.710567 58.284286 -316.400421 215 86 54 
-31.647736 58.518456 -317.671600 251 125 86 
-30.702080 58.996151 -320.264832 249 128 85 
-29.865942 59.731884 -324.258789 255 134 82 
-29.105635 60.688343 -329.451019 252 137 83 
-28.384563 61.815273 -335.568604 162 153 138 
-27.667616 63.056427 -342.306305 139 126 110 
-26.920422 64.346375 -349.308868 208 174 137 
-26.109392 65.608215 -356.158875 239 210 180 
-25.202591 66.752808 -362.372375 235 206 172 
-24.171511 67.680229 -367.406952 242 215 185 
-22.993660 68.284203 -370.685669 244 218 185 
-21.655661 68.459831 -371.639069 248 223 189 
-20.162878 68.136620 -369.884521 249 226 192 
-18.570681 67.404694 -365.911194 250 230 195 
-16.943073 66.416847 -360.548615 251 228 195 
-15.329900 65.318703 -354.587250 253 228 197 
-13.765970 64.241196 -348.737915 252 229 197 
-12.272316 63.299316 -343.624847 252 227 196 
-10.858392 62.595436 -339.803802 252 229 195 
-9.524385 62.225983 -337.798187 251 231 198 
-8.263084 62.290947 -338.150848 252 232 199 
-7.060978 62.906895 -341.494568 253 234 202 
-5.897280 64.214828 -348.594788 252 236 203 
-4.732395 66.253532 -359.662048 252 237 204 
-3.519202 68.976349 -374.443054 254 239 208 
-2.214310 72.334129 -392.670990 254 241 209 
-0.778106 76.254364 -413.952271 255 242 209 
0.822580 80.612823 -437.612457 255 242 209 
2.608164 85.200012 -462.514343 253 242 210 
4.575912 89.687866 -486.877014 253 242 210 
6.686509 93.611122 -508.174652 252 241 211 
8.852021 96.388672 -523.252808 252 241 209 
10.934669 97.417961 -528.840393 255 242 210 
12.800510 96.496162 -523.836304 254 243 211 
14.387239 93.996628 -510.267395 255 244 212 
15.686104 90.425774 -490.882782 252 243 212 
16.727320 86.277756 -468.364929 253 242 214 
17.563328 81.962196 -444.937622 253 242 214 
18.254683 77.780823 -422.238770 253 244 213 
18.861273 73.936188 -401.367859 255 246 217 
19.438557 70.554764 -383.011566 254 243 213 
20.037411 67.712631 -367.582855 255 243 211 
20.706123 65.458069 -355.343811 255 241 210 
21.477934 63.782955 -346.250336 255 242 210 
22.348516 62.575844 -339.697449 252 241 209 
23.309048 61.737476 -335.146301 254 240 211 
24.351118 61.189987 -332.174225 255 242 210 
25.465586 60.868961 -330.431488 253 240 208 
26.641642 60.718163 -329.612885 254 239 208 
27.865965 60.685879 -329.437622 252 237 204 
29.122007 60.722485 -329.636353 254 239 208 
30.389442 60.778885 -329.942505 253 237 203 
31.643835 60.805798 -330.088623 253 238 205 
32.862652 60.764904 -329.866608 254 235 204 
34.051697 60.673935 -329.372803 254 235 203 
35.228413 60.568146 -328.798523 252 233 201 
36.412880 60.482410 -328.333099 255 236 202 
37.627815 60.451244 -328.163879 216 200 148 
38.898781 60.509216 -328.478607 215 200 145 
40.254765 60.691799 -329.469757 217 200 146 
41.729115 61.036617 -331.341644 215 200 143 
43.361015 61.585209 -334.319702 213 198 141 
45.197655 62.385498 -338.664124 151 132 100 
47.293354 63.489708 -344.658417 145 128 96 
49.670406 64.902664 -352.328766 156 137 104 
52.325924 66.596626 -361.524567 151 135 101 
55.251453 68.539780 -372.073090 153 134 102 
58.429455 70.692429 -383.758881 142 126 93 
61.828693 73.002556 -396.299591 143 130 96 
65.399033 75.401237 -409.321014 140 125 92 
69.066124 77.798622 -422.335388 139 125 90 
72.726830 80.081223 -434.726654 139 123 89 
76.246964 82.112114 -445.751495 149 133 99 
79.463272 83.735497 -454.564117 145 131 96 
82.191689 84.787209 -460.273438 144 129 98 
84.243088 85.111572 -462.034271 115 103 77 
85.445831 84.582741 -459.163452 107 96 76 
85.671379 83.126686 -451.259155 75 65 56 
84.857109 80.737831 -438.291077 75 65 55 
83.019333 77.484711 -420.631287 96 85 66 
80.252228 73.502045 -399.011078 129 122 94 
76.712540 68.970901 -374.413483 136 129 87 
72.594803 64.092705 -347.931854 150 139 94 
69.446686 60.228100 -326.952545 154 141 97 
70.675835 60.228100 -326.952545 160 149 104 
71.904976 60.228100 -326.952545 160 146 101 
73.134125 60.228100 -326.952545 160 147 102 
74.363266 60.228100 -326.952545 164 150 105 
75.592415 60.228100 -326.952545 164 150 101 
76.821556 60.228100 -326.952545 162 150 102 
78.050705 60.228100 -326.952545 166 152 103 
79.279846 60.228100 -326.952545 168 155 105 
80.508995 60.228100 -326.952545 172 159 107 
-74.880028 54.048740 -299.520111 198 182 120 
-73.931839 54.179054 -300.242249 196 177 119 
-73.178116 54.458130 -301.788818 195 179 120 
-72.597069 54.876526 -304.107422 199 181 122 
-72.169655 55.426296 -307.154053 195 181 118 
-71.878769 56.100502 -310.890289 206 190 130 
-71.708626 56.892792 -315.280884 187 171 108 
-71.644135 57.796951 -320.291443 167 152 95 
-71.670464 58.806534 -325.886200 165 149 89 
-71.772453 59.914394 -332.025604 167 150 94 
-71.934265 61.112297 -338.663971 166 151 92 
-72.138931 62.390427 -345.746948 164 149 92 
-72.367958 63.736916 -353.208740 168 154 93 
-72.601021 65.137367 -360.969574 165 149 90 
-72.815704 66.574356 -368.932892 168 152 93 
-72.987282 68.026985 -376.982880 168 153 94 
-73.088799 69.470543 -384.982605 167 153 93 
-73.091156 70.876274 -392.772675 171 155 96 
-72.963600 72.211403 -400.171509 169 152 96 
-72.674431 73.439423 -406.976807 170 155 96 
-72.192024 74.520805 -412.969452 169 153 94 
-71.486519 75.414345 -417.921173 170 151 95 
-70.535690 76.083443 -421.629089 169 152 96 
-69.326202 76.497879 -423.925781 169 150 94 
-67.850853 76.631554 -424.666534 173 152 97 
-66.109489 76.463989 -423.737946 210 185 129 
-64.109657 75.981819 -421.065918 206 183 127 
-61.866783 75.179886 -416.621887 206 183 131 
-59.403877 74.061974 -410.426788 184 160 112 
-56.750629 72.640808 -402.551147 195 173 134 
-53.942074 70.937523 -393.112091 170 143 113 
-51.017326 68.981171 -382.270660 200 92 64 
-48.047195 66.848274 -370.450836 211 82 51 
-45.136169 64.672722 -358.394653 213 82 52 
-42.363159 62.567127 -346.726166 216 83 52 
-39.780426 60.617790 -335.923584 203 78 47 
-37.419590 58.889847 -326.347900 166 81 50 
-35.297668 57.433495 -318.277283 101 55 39 
-33.422390 56.290340 -311.942291 117 65 51 
-31.796724 55.499737 -307.561066 210 84 49 
-30.422665 55.105206 -305.374664 252 128 77 
-29.304661 55.161716 -305.687836 252 128 77 
-28.435257 55.709892 -308.725647 255 133 82 
-27.760761 56.702831 -314.228180 249 122 73 
-27.226765 58.083763 -321.880859 225 172 141 
-26.784060 59.796970 -331.374878 223 200 163 
-26.384315 61.777908 -342.352570 217 188 154 
-25.977083 63.943588 -354.354034 232 206 173 
-25.508148 66.183304 -366.765808 232 203 171 
-24.919733 68.351265 -378.779938 241 214 184 
-24.153252 70.264008 -389.379700 243 217 182 
-23.155228 71.706512 -397.373596 245 219 185 
-21.895941 72.483109 -401.677246 248 222 189 
-20.424931 72.621971 -402.446777 254 239 206 
-18.819633 72.267395 -400.481812 250 230 197 
-17.150002 71.582619 -396.687012 250 227 195 
-15.472567 70.731735 -391.971680 250 227 195 
-13.828212 69.868858 -387.189911 252 229 198 
-12.242576 69.134544 -383.120605 252 229 197 
-10.727879 68.658424 -380.482086 253 230 198 
-9.285088 68.566803 -379.974335 251 231 198 
-7.905677 68.994995 -382.347290 251 232 200 
-6.571249 70.093323 -388.433807 253 234 201 
-5.241372 71.881668 -398.344238 253 237 204 
-3.868370 74.272705 -411.594604 254 238 205 
-2.411516 77.168503 -427.642120 253 236 206 
-0.837921 80.440437 -445.774109 255 240 205 
0.874018 83.905716 -464.977539 254 241 207 
2.728322 87.306297 -483.822388 255 240 209 
4.703016 90.297905 -500.400909 253 238 205 
6.742024 92.462044 -512.393799 253 238 205 
8.751994 93.354599 -517.340088 254 239 206 
10.610467 92.600433 -513.160767 253 240 206 
12.218850 90.231506 -500.032928 255 242 208 
13.553354 86.741463 -480.692291 254 241 209 
14.634842 82.643814 -457.984467 254 240 211 
15.509820 78.365410 -434.274963 255 242 210 
16.235382 74.218895 -411.296356 253 240 208 
16.869446 70.411606 -390.197632 254 240 211 
17.466280 67.070518 -371.682434 255 244 212 
18.075899 64.269859 -356.162140 255 255 222 
18.745886 62.055347 -343.890045 255 242 213 
19.524807 60.463921 -335.070892 253 240 208 
20.449377 59.489094 -329.668732 255 240 211 
21.518333 59.021713 -327.078674 252 238 209 
22.726137 58.965115 -326.765015 253 238 207 
24.067444 59.242939 -328.304596 253 237 207 
25.535049 59.789383 -331.332825 252 237 206 
27.117838 60.542149 -335.504425 253 238 205 
28.798609 61.437035 -340.463562 254 237 207 
30.551872 62.403824 -345.821198 253 237 205 
32.341770 63.363464 -351.139191 254 235 203 
34.120537 64.226898 -355.924042 253 234 202 
35.837601 64.913391 -359.728363 254 235 203 
37.483776 65.426224 -362.570343 253 233 200 
39.068970 65.800369 -364.643707 251 232 199 
40.608505 66.074852 -366.164825 254 236 200 
42.122616 66.291328 -367.364471 216 199 145 
43.636116 66.493134 -368.482788 215 198 144 
45.178223 66.724754 -369.766357 215 198 142 
46.782768 67.032028 -371.469147 210 195 140 
48.488892 67.462807 -373.856384 210 194 142 
50.342289 68.068451 -377.212646 69 56 40 
52.392979 68.900352 -381.822784 77 62 54 
54.653141 69.956024 -387.672943 60 49 40 
57.105827 71.196877 -394.549347 77 67 49 
59.727131 72.579803 -402.213074 106 93 76 
62.484016 74.055130 -410.388855 110 98 71 
65.331772 75.564461 -418.753021 118 103 78 
68.211769 77.039177 -426.925415 138 124 91 
71.049995 78.399994 -434.466614 138 122 92 
73.756905 79.558006 -440.883972 144 127 100 
76.229370 80.417793 -445.648621 147 129 95 
78.355164 80.882751 -448.225250 155 142 107 
80.020523 80.862846 -448.114929 145 130 99 
81.120056 80.283768 -444.905853 126 114 89 
81.568169 79.096405 -438.325928 117 104 86 
81.309830 77.284592 -428.285431 95 85 75 
80.328476 74.869255 -414.900452 164 152 130 
78.649094 71.907738 -398.488739 99 88 70 
76.335632 68.488045 -379.537903 57 47 38 
73.483154 64.719109 -358.651703 143 133 90 
70.206680 60.719292 -336.486084 159 146 104 
67.751656 57.558926 -318.972382 155 142 97 
68.950798 57.558926 -318.972382 154 139 96 
70.149940 57.558926 -318.972382 155 140 97 
71.349083 57.558926 -318.972382 161 148 104 
72.548233 57.558926 -318.972382 159 146 101 
73.747375 57.558926 -318.972382 161 149 101 
74.946518 57.558926 -318.972382 165 151 104 
76.145660 57.558926 -318.972382 169 155 108 
77.344810 57.558926 -318.972382 172 158 112 
78.543953 57.558926 -318.972382 175 159 107 
-75.486992 53.351711 -301.947968 198 179 122 
-74.639587 53.558178 -303.116516 199 180 122 
-73.928596 53.870449 -304.883820 196 177 119 
-73.341911 54.284565 -307.227539 197 181 122 
-72.868828 54.797356 -310.129730 197 181 121 
-72.499756 55.406319 -313.576172 205 189 128 
-72.225937 56.109406 -317.555359 208 192 130 
-72.039200 56.904911 -322.057587 166 150 90 
-71.931763 57.791328 -327.074310 169 154 95 
-71.896034 58.767193 -332.597321 164 152 92 
-71.924431 59.830940 -338.617676 163 148 90 
-72.009171 60.980736 -345.125031 165 150 91 
-72.142105 62.214294 -352.106415 166 151 94 
-72.314552 63.528675 -359.545258 165 151 90 
-72.517090 64.920067 -367.419922 166 151 92 
-72.739388 66.383522 -375.702484 169 153 94 
-72.970055 67.912727 -384.357117 167 152 95 
-73.196442 69.499649 -393.338470 169 154 97 
-73.404541 71.134293 -402.589844 167 152 95 
-73.578850 72.804337 -412.041565 169 152 96 
-73.702377 74.494873 -421.609283 165 148 91 
-73.755135 76.186623 -431.183838 171 152 97 
-73.686989 77.826706 -440.466034 167 150 96 
-73.418243 79.325455 -448.948334 166 149 93 
-72.865662 80.580849 -456.053314 173 152 97 
-71.948349 81.483673 -461.162903 208 182 130 
-70.594742 81.924759 -463.659271 209 182 129 
-68.750954 81.804924 -462.981079 207 182 128 
-66.389313 81.046692 -458.689819 175 152 102 
-63.515049 79.605530 -450.533417 187 163 125 
-60.169239 77.478195 -438.493622 188 163 133 
-56.427742 74.707153 -422.810699 207 114 78 
-52.459045 71.465942 -404.466827 213 84 53 
-48.510239 68.059143 -385.185791 211 82 51 
-44.759212 64.728706 -366.336945 211 82 51 
-41.312805 61.641331 -348.863708 208 83 51 
-38.225140 58.904316 -333.373352 136 81 48 
-35.515709 56.584347 -320.243347 111 64 48 
-33.184200 54.724819 -309.719177 120 73 51 
-31.221581 53.360519 -301.997833 224 97 68 
-29.618250 52.530479 -297.300171 255 132 81 
-28.370527 52.290775 -295.943542 253 127 76 
-27.463428 52.684944 -298.174377 252 127 77 
-26.827463 53.654926 -303.664062 248 120 75 
-26.397800 55.142071 -312.080658 241 190 164 
-26.119858 57.099224 -323.157318 219 193 158 
-25.941872 59.476486 -336.611603 234 205 173 
-25.809053 62.206436 -352.061951 234 208 175 
-25.658939 65.187576 -368.933960 224 198 163 
-25.418449 68.266693 -386.360413 239 210 178 
-25.003975 71.223442 -403.094391 242 216 183 
-24.326763 73.765022 -417.478638 243 217 182 
-23.317783 75.581779 -427.760712 201 172 140 
-22.007614 76.619102 -433.631500 165 139 106 
-20.473339 76.979752 -435.672638 250 224 191 
-18.794910 76.813980 -434.734436 249 224 193 
-17.044804 76.295784 -431.801666 249 226 194 
-15.281568 75.603546 -427.883881 251 228 196 
-13.547207 74.908081 -423.947876 253 230 199 
-11.867370 74.368851 -420.896057 250 230 197 
-10.253034 74.137321 -419.585693 252 232 199 
-8.702486 74.366699 -420.883881 253 233 200 
-7.201428 75.214920 -425.684448 251 232 200 
-5.710613 76.685371 -434.006561 254 235 203 
-4.183911 78.657524 -445.168091 254 235 202 
-2.584992 80.996422 -458.405273 251 235 202 
-0.888687 83.536621 -472.781738 253 234 202 
0.915602 86.066574 -487.100189 252 234 202 
2.818733 88.320312 -499.855408 255 236 199 
4.786341 89.983215 -509.266724 252 237 206 
6.755673 90.719040 -513.431152 252 237 204 
8.638207 90.221275 -510.614014 253 238 205 
10.331354 88.286118 -499.661865 253 236 206 
11.765692 85.075005 -481.488312 253 236 206 
12.941967 81.102997 -459.008453 253 238 205 
13.895997 76.836693 -434.862976 254 239 208 
14.679923 72.626991 -411.037842 253 238 205 
15.350112 68.710022 -388.869507 254 237 207 
15.960690 65.230652 -369.177704 254 239 208 
16.561590 62.271576 -352.430634 255 239 206 
17.199492 59.879711 -338.893677 228 204 170 
17.920630 58.087555 -328.750854 253 233 200 
18.774960 56.930519 -322.202515 254 237 207 
19.803471 56.409885 -319.255951 251 234 204 
21.010109 56.427151 -319.353668 252 235 205 
22.395288 56.896137 -322.007935 250 233 203 
23.960077 57.749931 -326.840027 252 233 201 
25.703470 58.929909 -333.518219 254 235 203 
27.619270 60.377007 -341.708160 254 235 203 
29.692366 62.024052 -351.029755 252 233 201 
31.894377 63.788754 -361.017212 252 233 201 
34.178963 65.567810 -371.085907 253 232 201 
36.477615 67.233253 -380.511597 252 231 200 
38.710209 68.655838 -388.562836 251 229 198 
40.846733 69.810776 -395.099304 253 230 198 
42.882336 70.718239 -400.235138 249 229 196 
44.820351 71.408691 -404.142822 238 219 177 
46.672005 71.920792 -407.041077 214 199 144 
48.455822 72.299164 -409.182495 213 198 143 
50.196938 72.592491 -410.842621 212 197 142 
51.926476 72.852066 -412.311707 210 195 139 
53.681232 73.130951 -413.890076 198 181 127 
55.503803 73.483910 -415.887665 229 207 159 
57.439045 73.962601 -418.596863 249 225 181 
59.491745 74.562988 -421.994781 248 226 177 
61.637161 75.245369 -425.856750 247 228 178 
63.844707 75.967125 -429.941589 249 228 183 
66.077385 76.682396 -433.989746 247 228 182 
68.291176 77.341812 -437.721741 244 226 180 
70.435020 77.892845 -440.840363 247 229 181 
72.451393 78.280815 -443.036102 240 218 172 
74.277824 78.450737 -443.997803 239 218 166 
75.849350 78.349876 -443.426971 229 206 154 
77.101921 77.930977 -441.056152 220 198 144 
77.976578 77.155777 -436.668854 218 196 145 
78.423973 75.998489 -430.119110 215 198 144 
78.408691 74.448662 -421.347717 214 194 152 
77.912666 72.512779 -410.391479 202 182 140 
76.937202 70.214531 -397.384369 200 184 147 
75.503098 67.593254 -382.549042 199 184 144 
73.648964 64.700958 -366.179901 165 148 117 
71.427773 61.598263 -348.619965 157 142 103 
68.902496 58.349861 -330.235382 158 145 100 
67.069687 55.792480 -315.761719 150 138 93 
68.256760 55.792480 -315.761719 155 142 97 
69.443832 55.792480 -315.761719 158 145 100 
70.630905 55.792480 -315.761719 159 146 101 
71.817986 55.792480 -315.761719 162 149 103 
73.005058 55.792480 -315.761719 164 150 103 
74.192131 55.792480 -315.761719 168 154 107 
75.379204 55.792480 -315.761719 172 158 111 
76.566277 55.792480 -315.761719 174 157 111 
77.753349 55.792480 -315.761719 174 160 111 
-76.749901 53.090157 -306.999603 195 176 117 
-75.833931 53.257416 -307.966797 197 178 120 
-75.029480 53.509396 -309.423889 196 180 118 
-74.329430 53.844940 -311.364227 198 179 121 
-73.727676 54.263569 -313.784973 195 180 120 
-73.218956 54.765400 -316.686890 202 186 126 
-72.798805 55.351158 -320.074066 214 202 139 
-72.463387 56.022118 -323.953979 168 153 94 
-72.209503 56.780121 -328.337219 166 151 92 
-72.034447 57.627556 -333.237610 165 150 91 
-71.936020 58.567383 -338.672241 162 147 90 
-71.912453 59.603115 -344.661499 163 148 89 
-71.962357 60.738869 -351.229095 165 150 92 
-72.084702 61.979370 -358.402435 166 153 93 
-72.278793 63.329990 -366.212555 167 152 97 
-72.544220 64.796783 -374.694427 166 151 94 
-72.880852 66.386513 -383.887238 165 150 93 
-73.288765 68.106735 -393.834595 168 153 98 
-73.768288 69.965797 -404.584839 168 151 95 
-74.319901 71.972961 -416.191467 165 149 90 
-74.944229 74.138374 -428.713196 166 149 93 
-75.639175 76.470375 -442.198242 170 149 94 
-76.345535 78.918976 -456.357574 169 149 96 
-76.940514 81.362381 -470.486786 168 151 95 
-77.280701 83.644989 -483.686249 165 146 90 
-77.208366 85.580360 -494.877716 205 180 126 
-76.562721 86.960129 -502.856415 208 182 126 
-75.198853 87.573349 -506.402405 205 177 127 
-73.012001 87.235123 -504.446564 178 154 106 
-69.962158 85.820244 -496.264893 184 160 122 
-66.090782 83.292496 -481.647888 172 147 116 
-61.523926 79.721146 -460.996185 186 115 82 
-56.556175 75.408234 -436.056305 217 90 58 
-51.600937 70.855019 -409.726837 211 82 50 
-46.939907 66.438026 -384.185089 211 84 52 
-42.725731 62.393131 -360.795074 207 82 50 
-39.020805 58.851051 -340.312622 107 71 56 
-35.833218 55.875526 -323.106293 108 63 44 
-33.143528 53.494820 -309.339600 118 64 48 
-30.922817 51.725441 -299.107971 175 115 78 
-29.144411 50.590302 -292.543915 252 126 76 
-27.792229 50.135002 -289.911102 253 127 76 
-26.841539 50.396358 -291.422424 250 125 77 
-26.210423 51.305508 -296.679688 251 125 75 
-25.827108 52.802090 -305.333801 204 135 118 
-25.634727 54.846394 -317.155243 192 162 138 
-25.581722 57.402889 -331.938446 222 195 154 
-25.614147 60.423115 -349.403229 239 210 180 
-25.668829 63.825195 -369.076141 234 208 175 
-25.667614 67.469154 -390.147736 240 211 177 
-25.514145 71.130348 -411.318939 240 214 181 
-25.096420 74.479698 -430.686951 241 215 180 
-24.313532 77.132584 -446.027557 235 209 176 
-23.173140 78.960327 -456.596680 217 191 157 
-21.742004 80.010574 -462.669861 244 219 188 
-20.099531 80.398125 -464.910889 246 223 191 
-18.325403 80.282722 -464.243561 247 224 192 
-16.489927 79.845963 -461.717957 249 226 194 
-14.648268 79.272980 -458.404602 251 228 196 
-12.838392 78.742142 -455.334961 249 229 196 
-11.081502 78.422935 -453.489136 252 232 199 
-9.383665 78.481567 -453.828186 252 232 199 
-7.736090 79.080025 -457.288849 251 230 199 
-6.102966 80.210411 -463.825439 252 233 200 
-4.441957 81.732010 -472.624207 253 232 201 
-2.722488 83.489624 -482.787811 252 233 200 
-0.927206 85.302994 -493.273804 252 233 201 
0.945206 86.958984 -502.849762 186 128 86 
2.876503 88.212761 -510.099884 211 146 91 
4.826198 88.802032 -513.507446 224 158 102 
6.731918 88.476631 -511.625732 236 189 142 
8.514832 87.040512 -503.321228 255 235 199 
10.091409 84.400871 -488.057220 253 237 204 
11.413700 80.773880 -467.083740 255 236 204 
12.496533 76.645409 -443.210388 252 235 205 
13.382052 72.420517 -418.779510 253 237 204 
14.122955 68.384834 -395.442749 252 236 203 
14.773018 64.719887 -374.249786 252 236 203 
15.382797 61.531189 -355.810791 253 237 203 
15.999020 58.876392 -340.459137 252 224 184 
16.666285 56.788818 -328.387512 193 157 121 
17.430286 55.296082 -319.755615 253 223 184 
18.342438 54.435623 -314.779907 254 228 191 
19.447504 54.217285 -313.517334 255 231 191 
20.754635 54.555042 -315.470459 255 233 197 
22.270391 55.375027 -320.212097 253 234 201 
24.002853 56.622116 -327.423553 252 231 200 
25.958569 58.248493 -336.828247 252 233 201 
28.138710 60.203751 -348.134735 251 232 202 
30.534056 62.425179 -360.980377 251 232 200 
33.118496 64.827698 -374.873199 250 231 199 
35.841347 67.293961 -389.134613 252 231 200 
38.619431 69.666420 -402.853668 254 231 200 
41.347061 71.772255 -415.030884 253 230 199 
43.972038 73.553230 -425.329529 253 228 197 
46.470245 75.004608 -433.722290 249 229 196 
48.827065 76.137115 -440.271149 183 164 123 
51.038166 76.975594 -445.119751 210 193 139 
53.109467 77.556679 -448.479919 211 194 140 
55.056450 77.926048 -450.615845 209 194 139 
56.903099 78.135597 -451.827576 204 192 134 
58.680698 78.240929 -452.436676 175 158 105 
60.426792 78.299507 -452.775391 222 198 152 
62.180668 78.364677 -453.152252 228 206 158 
63.944767 78.438911 -453.581543 226 204 157 
65.695862 78.493752 -453.898682 223 201 154 
67.407768 78.500183 -453.935852 225 203 156 
69.051865 78.429276 -453.525818 226 199 156 
70.597549 78.252701 -452.504761 224 200 154 
72.012886 77.943359 -450.715942 223 202 157 
73.265526 77.476189 -448.014496 224 200 156 
74.323860 76.829163 -444.272980 221 199 150 
75.158340 75.984253 -439.387207 220 194 147 
75.742805 74.928368 -433.281433 217 194 146 
76.055969 73.654198 -425.913422 220 195 145 
76.082504 72.160721 -417.277222 216 192 143 
75.814087 70.453491 -407.404999 215 192 140 
75.249893 68.544456 -396.365784 215 191 143 
74.396729 66.451447 -384.262695 213 191 142 
73.268623 64.197273 -371.227692 211 189 140 
71.886086 61.808594 -357.414917 205 184 137 
70.274895 59.314590 -342.993073 188 167 119 
68.464798 56.745598 -328.137573 210 187 142 
67.231804 54.737396 -316.524963 149 136 94 
68.421745 54.737396 -316.524963 165 150 107 
69.611694 54.737396 -316.524963 162 148 104 
70.801636 54.737396 -316.524963 164 150 105 
71.991577 54.737396 -316.524963 167 153 104 
73.181519 54.737396 -316.524963 170 158 110 
74.371468 54.737396 -316.524963 168 154 105 
75.561409 54.737396 -316.524963 171 157 108 
76.751350 54.737396 -316.524963 177 161 112 
77.941292 54.737396 -316.524963 176 158 110 
-78.637695 53.213478 -314.550781 193 174 116 
-77.486694 53.235134 -314.678802 196 177 118 
-76.455246 53.340870 -315.303802 196 177 119 
-75.537064 53.530201 -316.422974 195 177 116 
-74.726944 53.803402 -318.037903 195 179 119 
-74.020721 54.161507 -320.154663 201 185 125 
-73.415161 54.606319 -322.784027 211 197 134 
-72.907906 55.140430 -325.941223 166 152 91 
-72.497475 55.767288 -329.646637 169 154 95 
-72.183273 56.491257 -333.926086 168 153 96 
-71.965530 57.317680 -338.811188 164 149 90 
-71.845421 58.253044 -344.340210 166 151 92 
-71.825050 59.305084 -350.558929 166 151 92 
-71.907578 60.483006 -357.521790 170 154 94 
-72.097321 61.797699 -365.293060 167 152 92 
-72.399887 63.262039 -373.948944 167 152 93 
-72.822388 64.891235 -383.579315 169 152 96 
-73.373688 66.703354 -394.290955 169 153 96 
-74.064743 68.719864 -406.210754 168 151 95 
-74.908989 70.966408 -419.490326 170 153 99 
-75.922935 73.473816 -434.311859 167 150 96 
-77.123131 76.275620 -450.873657 168 149 90 
-78.452408 79.333893 -468.951447 163 148 91 
-79.764816 82.515327 -487.757263 163 146 90 
-80.876366 85.633797 -506.190887 170 149 96 
-81.567604 88.446800 -522.818848 204 177 124 
-81.595490 90.661659 -535.911133 201 176 122 
-80.720673 91.960266 -543.587341 200 175 119 
-78.749855 92.045288 -544.089905 168 144 100 
-75.584763 90.701721 -536.147949 161 138 97 
-71.260612 87.855553 -519.323914 167 147 114 
-65.957321 83.607872 -494.215424 175 123 95 
-60.102238 78.394226 -463.396973 216 87 56 
-54.272083 72.902794 -430.936523 208 81 46 
-48.842064 67.627472 -399.753510 205 78 46 
-43.998158 62.854511 -371.540009 203 76 44 
-39.800850 58.722565 -347.115601 102 63 47 
-36.240490 55.282104 -326.778656 98 55 39 
-33.275692 52.540569 -310.573151 117 64 46 
-30.857050 50.493355 -298.471832 134 79 59 
-28.941166 49.145378 -290.503784 252 129 80 
-27.499718 48.528915 -286.859802 253 128 80 
-26.498579 48.670860 -287.698853 254 130 79 
-25.846275 49.492870 -292.557861 249 123 75 
-25.465895 50.931789 -301.063477 125 119 104 
-25.298988 52.951370 -313.001434 123 115 104 
-25.294668 55.524883 -328.213745 221 194 147 
-25.400936 58.617546 -346.494843 234 208 173 
-25.556759 62.165089 -367.464752 220 195 162 
-25.684673 66.046303 -390.407043 235 211 177 
-25.685255 70.050697 -414.077423 238 212 177 
-25.436743 73.848610 -436.527344 238 211 179 
-24.820496 77.029129 -455.327728 242 216 179 
-23.825695 79.418983 -469.454437 241 216 183 
-22.505079 81.018288 -478.908081 241 218 184 
-20.929972 81.899887 -484.119354 241 218 186 
-19.178423 82.193237 -485.853363 244 221 189 
-17.324423 82.063057 -485.083862 248 225 193 
-15.430182 81.689194 -482.873901 247 224 192 
-13.542038 81.252228 -480.290924 248 225 193 
-11.689427 80.926804 -478.367310 251 228 196 
-9.885662 80.882690 -478.106567 250 228 196 
-8.127985 81.279854 -480.454224 250 230 197 
-6.385970 82.105324 -485.333710 249 229 196 
-4.622976 83.213577 -491.884705 252 232 198 
-2.814887 84.446602 -499.173218 252 232 200 
-0.951429 85.628632 -506.160370 252 230 199 
0.961824 86.564140 -511.690277 153 107 74 
2.901469 87.044075 -514.527222 197 136 82 
4.825669 86.862038 -513.451172 194 134 80 
6.676425 85.839752 -507.408325 194 134 84 
8.385741 83.857407 -495.690460 208 148 99 
9.885880 80.884476 -478.117126 235 183 137 
11.143313 77.146011 -456.018646 247 221 185 
12.179585 73.077507 -431.969269 245 193 146 
13.038076 69.025108 -408.015106 226 164 111 
13.769546 65.224167 -385.547272 211 146 92 
14.424621 61.819805 -365.423737 206 137 82 
15.050774 58.894329 -348.130920 206 139 87 
15.692367 56.492519 -333.933563 193 129 79 
16.392639 54.642128 -322.995697 184 123 76 
17.197067 53.370205 -315.477203 182 120 76 
18.158171 52.717270 -311.617645 165 106 66 
19.323561 52.700619 -311.519196 172 113 73 
20.706711 53.245827 -314.742004 180 121 81 
22.319347 54.290306 -320.916016 180 116 78 
24.175587 55.789814 -329.779785 196 128 93 
26.288843 57.707214 -341.113770 250 218 179 
28.667694 60.002151 -354.679382 253 230 196 
31.310019 62.620037 -370.153992 252 232 199 
34.194969 65.479729 -387.057953 252 229 198 
37.272705 68.460068 -404.675079 223 183 148 
40.452919 71.387505 -421.979462 248 226 194 
43.612663 74.059242 -437.772400 250 227 195 
46.680882 76.386902 -451.531433 248 228 195 
49.613762 78.337517 -463.061798 247 224 190 
52.375904 79.895447 -472.270844 133 114 82 
54.942722 81.063034 -479.172607 209 194 137 
57.301830 81.859756 -483.882141 207 192 135 
59.453190 82.319801 -486.601471 205 190 135 
61.408363 82.488846 -487.600739 207 192 134 
63.189018 82.420464 -487.196503 89 64 50 
64.825089 82.172646 -485.731628 92 66 49 
66.349960 81.801315 -483.536682 83 59 41 
67.770050 81.324059 -480.715546 81 55 38 
69.074249 80.736130 -477.240265 78 54 36 
70.251900 80.033813 -473.088745 89 60 44 
71.293297 79.214775 -468.247345 82 53 37 
72.189949 78.278259 -462.711487 76 49 30 
72.934784 77.225067 -456.485962 79 51 36 
73.522362 76.057617 -449.584991 81 54 37 
73.948997 74.779884 -442.032196 77 47 32 
74.212891 73.397369 -433.859985 71 44 31 
74.314133 71.916901 -425.108795 76 47 31 
74.254692 70.346550 -415.826263 74 48 33 
74.038361 68.695389 -406.066071 73 47 32 
73.670624 66.973289 -395.886566 71 48 34 
73.158485 65.190727 -385.349640 64 40 28 
72.510254 63.358475 -374.518982 66 44 31 
71.735359 61.487453 -363.459167 63 39 28 
70.844063 59.588467 -352.234039 70 50 41 
69.847244 57.672039 -340.905823 64 49 42 
68.756126 55.748211 -329.533875 54 42 30 
68.138100 54.269283 -320.791748 151 138 94 
69.344086 54.269283 -320.791748 153 139 94 
70.550064 54.269283 -320.791748 154 141 96 
71.756050 54.269283 -320.791748 159 145 100 
72.962036 54.269283 -320.791748 158 144 97 
74.168022 54.269283 -320.791748 169 153 104 
75.374001 54.269283 -320.791748 169 154 108 
76.579987 54.269283 -320.791748 172 155 109 
77.785973 54.269283 -320.791748 175 157 109 
78.991959 54.269283 -320.791748 174 158 107 
-81.137474 53.684944 -324.549896 195 176 118 
-79.577301 53.456505 -323.168884 198 179 120 
-78.182472 53.333778 -322.426941 199 180 122 
-76.941856 53.314045 -322.307617 195 179 120 
-75.846291 53.395786 -322.801819 198 179 120 
-74.888336 53.578648 -323.907288 198 182 123 
-74.062187 53.863411 -325.628815 208 193 135 
-73.363495 54.251995 -327.977966 164 153 90 
-72.789299 54.747509 -330.973572 165 150 91 
-72.338028 55.354317 -334.641998 161 146 87 
-72.009460 56.078163 -339.017975 164 149 90 
-71.804794 56.926323 -344.145508 166 149 93 
-71.726730 57.907818 -350.079071 168 153 94 
-71.779579 59.033669 -356.885376 168 152 93 
-71.969498 60.317291 -364.645447 166 151 94 
-72.304733 61.774914 -373.457428 168 153 96 
-72.795967 63.426189 -383.440155 168 152 93 
-73.456841 65.294968 -394.737762 167 150 94 
-74.304558 67.410324 -407.526031 168 153 96 
-75.360779 69.807877 -422.020355 165 153 93 
-76.652733 72.531616 -438.486603 165 150 93 
-78.210541 75.632172 -457.230835 166 147 92 
-79.982628 79.083946 -478.098419 163 146 90 
-81.813599 82.753990 -500.285461 166 146 95 
-83.496857 86.443802 -522.592102 166 146 93 
-84.772316 89.879082 -543.359863 197 171 120 
-85.336098 92.710823 -560.479065 197 171 120 
-84.872360 94.541367 -571.545532 195 169 119 
-83.110222 94.983109 -574.216064 168 145 101 
-79.895699 93.744286 -566.726807 170 148 111 
-75.252899 90.715828 -548.418396 177 156 125 
-69.405060 86.023170 -520.049133 165 128 100 
-62.888584 80.205734 -484.880096 214 87 55 
-56.409885 74.090599 -447.911316 207 79 50 
-50.415226 68.254456 -412.629242 208 80 51 
-45.112957 63.014923 -380.953857 202 79 46 
-40.558983 58.511318 -353.727509 105 65 52 
-36.728100 54.780891 -331.175385 80 47 31 
-33.561237 51.813839 -313.238190 124 68 51 
-30.993063 49.588902 -299.787445 128 71 54 
-28.967291 48.096634 -290.765991 244 140 87 
-27.445778 47.357418 -286.297119 253 136 82 
-26.386621 47.388218 -286.483307 255 136 85 
-25.691435 48.103111 -290.805176 252 124 76 
-25.279343 49.435162 -298.858002 175 148 125 
-25.090239 51.347466 -310.418762 185 159 136 
-25.073212 53.815674 -325.340210 167 141 108 
-25.177597 56.810989 -343.448242 186 158 118 
-25.344847 60.279636 -364.417786 242 214 164 
-25.500803 64.116302 -387.612213 171 140 111 
-25.549322 68.131523 -411.886047 236 210 177 
-25.370358 72.019081 -435.388062 235 210 177 
-24.842690 75.384712 -455.734863 237 213 177 
-23.945774 78.045486 -471.820435 239 213 178 
-22.719942 79.974197 -483.480377 218 192 158 
-21.225283 81.209778 -490.950012 224 203 166 
-19.531811 81.847588 -494.805908 235 211 177 
-17.709545 82.023155 -495.867279 242 215 185 
-15.820495 81.894325 -495.088440 244 219 188 
-13.913647 81.626724 -493.470673 250 225 194 
-12.022765 81.384872 -492.008545 251 228 194 
-10.166240 81.329918 -491.676331 252 228 194 
-8.346654 81.611725 -493.380005 249 226 192 
-6.540006 82.217216 -497.040466 247 225 194 
-4.716448 83.009491 -501.830109 247 227 194 
-2.858236 83.841599 -506.860565 250 229 198 
-0.960854 84.555183 -511.174500 248 228 193 
0.965703 84.981850 -513.753906 252 228 200 
2.896056 84.950966 -513.567200 246 224 187 
4.790012 84.304207 -509.657257 148 95 55 
6.595524 82.915161 -501.259857 185 129 87 
8.254445 80.710129 -487.929413 177 120 77 
9.710937 77.687492 -469.656189 173 121 81 
10.940154 74.056427 -447.704773 175 120 81 
11.965329 70.196594 -424.370331 178 120 81 
12.827978 66.403648 -401.440247 174 113 70 
13.575596 62.876446 -380.116699 175 114 70 
14.255501 59.737335 -361.139343 177 114 72 
14.912478 57.056438 -344.932098 175 112 68 
15.589058 54.873486 -331.735138 168 109 65 
16.327486 53.215511 -321.711975 171 112 70 
17.173046 52.111309 -315.036560 167 109 71 
18.178829 51.604420 -311.972168 149 96 65 
19.394176 51.717800 -312.657623 148 93 63 
20.835686 52.386868 -316.702423 148 94 66 
22.518724 53.558044 -323.782715 142 91 60 
24.461620 55.195454 -333.681610 155 96 64 
26.682758 57.270309 -346.225037 170 112 74 
29.196392 59.750755 -361.220459 187 130 92 
32.006565 62.590618 -378.388733 193 145 109 
35.098339 65.716042 -397.283356 184 140 109 
38.426079 69.010101 -417.197418 123 86 61 
41.899567 72.297295 -437.070007 249 226 192 
45.389244 75.363274 -455.605255 248 224 189 
48.812214 78.099541 -472.147247 248 224 190 
52.108704 80.448524 -486.347900 247 221 188 
55.223839 82.367760 -497.950562 157 139 104 
58.111584 83.833107 -506.809204 207 192 137 
60.737812 84.840118 -512.897095 209 192 138 
63.082165 85.403549 -516.303284 207 192 135 
65.138512 85.555061 -517.219238 206 191 134 
66.914139 85.339775 -515.917725 105 74 53 
68.427917 84.812065 -512.727478 122 85 59 
69.706322 84.029541 -507.996765 123 84 56 
70.765617 83.031654 -501.964111 117 80 53 
71.616272 81.847168 -494.803314 113 78 54 
72.271843 80.505341 -486.691376 107 71 47 
72.748253 79.035133 -477.803314 104 69 47 
73.062981 77.464363 -468.307281 108 70 47 
73.234322 75.819061 -458.360687 117 72 53 
73.280762 74.123070 -448.107635 111 71 46 
73.220467 72.397766 -437.677399 111 70 50 
73.070915 70.661987 -427.183838 116 74 50 
72.848572 68.931984 -416.725159 113 72 50 
72.568756 67.221581 -406.385010 113 72 50 
72.245514 65.542320 -396.233124 111 70 48 
71.891609 63.903656 -386.326630 112 71 51 
71.518532 62.313175 -376.711456 113 75 54 
71.136551 60.776859 -367.423737 110 74 55 
70.754822 59.299278 -358.491089 103 68 49 
70.381432 57.883797 -349.933868 88 59 44 
70.023590 56.532810 -341.766541 53 44 35 
69.687668 55.247879 -333.998535 108 99 70 
69.732574 54.305012 -328.298462 142 130 91 
70.966774 54.305012 -328.298462 154 139 96 
72.200981 54.305012 -328.298462 157 142 101 
73.435188 54.305012 -328.298462 158 141 97 
74.669388 54.305012 -328.298462 159 145 98 
75.903595 54.305012 -328.298462 165 148 102 
77.137802 54.305012 -328.298462 164 152 102 
78.372002 54.305012 -328.298462 171 153 105 
79.606209 54.305012 -328.298462 173 155 105 
80.840416 54.305012 -328.298462 177 159 109 
-84.247604 54.475895 -336.990417 195 179 120 
-82.087875 53.889748 -333.364502 195 176 117 
-80.186691 53.457794 -330.692383 196 177 118 
-78.518715 53.170155 -328.913025 195 177 119 
-77.063278 53.019535 -327.981323 195 179 120 
-75.803596 53.000885 -327.865936 193 178 119 
-74.726189 53.111176 -328.548187 202 187 127 
-73.820465 53.349239 -330.020874 177 161 101 
-73.078362 53.715717 -332.287933 168 154 93 
-72.494156 54.213020 -335.364258 166 151 92 
-72.064308 54.845402 -339.276215 165 150 91 
-71.787392 55.619057 -344.062073 166 151 92 
-71.664101 56.542316 -349.773376 166 151 92 
-71.697357 57.625912 -356.476562 168 153 96 
-71.892448 58.883339 -364.255066 168 153 94 
-72.257317 60.331352 -373.212555 167 153 92 
-72.802948 61.990631 -383.476929 164 148 89 
-73.543892 63.886612 -395.205566 169 154 95 
-74.499023 66.050682 -408.592590 169 152 96 
-75.692566 68.521690 -423.878387 164 149 92 
-77.155464 71.348061 -441.362427 164 147 91 
-78.922867 74.586441 -461.395203 167 150 92 
-80.946602 78.218063 -483.860565 166 149 93 
-83.069466 82.114647 -507.965027 168 147 92 
-85.076248 86.077141 -532.477234 163 143 90 
-86.688164 89.821472 -555.639832 194 168 117 
-87.570335 92.975914 -575.153320 192 169 119 
-87.364891 95.106087 -588.330688 193 169 121 
-85.755264 95.778603 -592.490906 164 141 97 
-82.551414 94.658951 -585.564697 151 129 88 
-77.765732 91.614426 -566.731140 201 180 149 
-71.641685 86.777252 -536.808167 158 132 106 
-64.773933 80.732727 -499.416382 204 81 52 
-57.939938 74.370667 -460.060394 199 75 41 
-51.626911 68.306374 -422.546387 204 77 45 
-46.057877 62.872658 -388.933167 169 96 61 
-41.288391 58.209866 -360.088928 111 63 49 
-37.286320 54.349552 -336.208862 104 55 41 
-33.983883 51.273930 -317.182922 119 63 48 
-31.307442 48.953453 -302.828339 126 69 50 
-29.193449 47.370502 -293.036133 178 117 80 
-27.597525 46.537003 -287.880066 252 139 81 
-26.472235 46.461472 -287.412842 252 137 83 
-25.714893 47.052784 -291.070709 254 124 77 
-25.241810 48.239902 -298.414276 122 102 91 
-24.991125 49.982250 -309.192505 174 149 129 
-24.911192 52.252743 -323.237885 149 116 88 
-24.951809 55.021938 -340.368256 195 152 110 
-25.056566 58.239586 -360.272797 217 187 162 
-25.155727 61.811218 -382.367065 253 209 174 
-25.160395 65.569511 -405.616058 253 230 198 
-24.960470 69.245178 -428.353882 233 207 172 
-24.444387 72.490250 -448.428070 235 211 175 
-23.590498 75.140106 -464.820190 236 210 177 
-22.430590 77.161224 -477.322937 247 223 189 
-21.013710 78.572998 -486.056244 255 245 210 
-19.398712 79.442345 -491.434021 255 248 214 
-17.646317 79.872795 -494.096832 255 243 208 
-15.812245 79.991356 -494.830261 255 241 207 
-13.942419 79.936539 -494.491119 251 236 202 
-12.070353 79.850021 -493.955963 252 234 199 
-10.216329 79.873116 -494.098816 238 218 185 
-8.386490 80.137573 -495.734741 221 194 164 
-6.563102 80.632393 -498.795746 243 223 188 
-4.723134 81.237907 -502.541443 245 222 190 
-2.854402 81.826180 -506.180573 246 226 193 
-0.956536 82.262077 -508.877014 249 228 196 
0.958208 82.405899 -509.766724 246 224 193 
2.864680 82.120834 -508.003296 248 225 191 
4.725852 81.284660 -502.830688 181 129 89 
6.495700 79.804314 -493.673187 249 227 193 
8.124081 77.630104 -480.223450 255 229 193 
9.563468 74.768929 -462.524078 245 216 178 
10.793401 71.402496 -441.699188 250 236 199 
11.835390 67.856239 -419.761841 252 226 191 
12.727099 64.384148 -398.283356 234 210 174 
13.511919 61.159210 -378.333710 116 85 57 
14.233709 58.290428 -360.587311 231 195 165 
14.934754 55.842995 -345.447357 203 173 141 
15.655974 53.856552 -333.159119 227 198 162 
16.438725 52.360382 -323.903748 169 125 92 
17.327883 51.386135 -317.877014 155 115 76 
18.376436 50.979790 -315.363342 139 95 62 
19.634247 51.168037 -316.527863 134 87 61 
21.119732 51.894199 -321.019928 139 87 63 
22.850178 53.111225 -328.548523 136 85 64 
24.845987 54.788586 -338.924744 135 85 62 
27.127987 56.902607 -352.002167 132 85 62 
29.713505 59.427010 -367.618225 132 86 62 
32.610489 62.322266 -385.528442 126 80 56 
35.808891 65.522652 -405.326202 120 82 63 
39.268887 68.920898 -426.347900 109 73 61 
42.906418 72.352005 -447.572845 247 223 189 
46.596233 75.608978 -467.720673 246 220 187 
50.252354 78.576408 -486.077301 245 219 186 
53.805725 81.180565 -502.186768 246 223 191 
57.187073 83.357430 -515.652954 187 171 124 
60.331604 85.057671 -526.170715 203 188 129 
63.183479 86.250465 -533.549377 203 190 135 
65.699570 86.925583 -537.725708 206 190 134 
67.851898 87.093483 -538.764343 204 187 131 
69.628578 86.783447 -536.846436 100 75 55 
71.033157 86.040169 -532.248474 119 83 56 
72.082886 84.919563 -525.316345 116 78 55 
72.807388 83.485802 -516.447083 118 80 57 
73.244835 81.805916 -506.055206 114 79 57 
73.437653 79.944786 -494.542145 110 72 51 
73.429733 77.962433 -482.279236 111 75 53 
73.264175 75.912277 -469.596893 111 74 53 
72.981743 73.840347 -456.779846 112 71 49 
72.619865 71.785156 -444.066315 108 70 51 
72.212196 69.778084 -431.650452 102 65 45 
71.788513 67.844093 -419.686707 104 69 49 
71.374916 66.002609 -408.295227 107 72 52 
70.994217 64.268448 -397.567627 108 72 50 
70.666412 62.652695 -387.572479 105 70 48 
70.409233 61.163578 -378.360718 106 70 48 
70.238708 59.807220 -369.970245 109 70 53 
70.169739 58.588322 -362.430084 104 69 49 
70.216660 57.510784 -355.764404 101 66 47 
70.393814 56.578209 -349.995422 68 51 40 
70.716194 55.794430 -345.146942 56 43 35 
71.199989 55.163960 -341.246796 124 115 86 
71.987343 54.786827 -338.913849 140 128 87 
73.261452 54.786827 -338.913849 146 132 83 
74.535568 54.786827 -338.913849 154 140 93 
75.809677 54.786827 -338.913849 156 142 93 
77.083794 54.786827 -338.913849 160 146 101 
78.357903 54.786827 -338.913849 162 148 99 
79.632019 54.786827 -338.913849 165 147 100 
80.906128 54.786827 -338.913849 169 153 102 
82.180244 54.786827 -338.913849 171 153 105 
83.454353 54.786827 -338.913849 171 151 101 
-87.970985 55.560619 -351.883942 193 177 118 
-84.998344 54.502754 -345.184113 197 178 118 
-82.439301 53.681408 -339.982239 195 177 118 
-80.238640 53.071228 -336.117767 196 177 119 
-78.352631 52.652966 -333.468781 196 181 121 
-76.746452 52.412212 -331.944000 195 179 120 
-75.392418 52.338539 -331.477417 201 187 127 
-74.268600 52.424896 -332.024353 190 176 113 
-73.357841 52.667168 -333.558716 169 154 95 
-72.647026 53.063911 -336.071442 167 152 94 
-72.126579 53.616215 -339.569366 166 152 94 
-71.790062 54.327614 -344.074890 163 150 90 
-71.634018 55.204193 -349.626556 165 150 93 
-71.657768 56.254696 -356.279755 168 153 94 
-71.863525 57.490818 -364.108521 166 151 92 
-72.256416 58.927563 -373.207886 170 155 97 
-72.844788 60.583782 -383.697296 167 152 93 
-73.640572 62.482910 -395.725098 167 152 94 
-74.659859 64.653900 -409.474701 169 154 95 
-75.923706 67.132538 -425.172760 167 150 95 
-77.459206 69.963158 -443.099976 164 146 91 
-79.296806 73.197052 -463.581329 164 147 95 
-81.386902 76.814598 -486.492462 166 146 94 
-83.574318 80.692444 -511.052155 164 147 93 
-85.645615 84.638016 -536.040771 165 145 94 
-87.323372 88.375458 -559.711243 184 160 114 
-88.273132 91.542503 -579.769165 189 166 116 
-88.135941 93.714165 -593.523010 188 166 117 
-86.591736 94.463707 -598.270142 153 132 89 
-83.444466 93.457802 -591.899414 158 137 100 
-78.698776 90.557495 -573.530823 186 164 133 
-72.590981 85.882286 -543.921143 131 106 83 
-65.711052 79.996063 -506.641724 204 81 51 
-58.837734 73.766708 -467.189178 204 80 49 
-52.465618 67.801720 -429.410889 204 79 47 
-46.826218 62.434959 -395.421417 159 87 59 
-41.981834 57.811050 -366.136658 105 57 43 
-37.904629 53.965912 -341.784119 102 54 42 
-34.528919 50.884724 -322.269928 110 57 41 
-31.781454 48.538948 -307.413330 123 65 48 
-29.597715 46.909588 -297.094055 139 73 45 
-27.931070 46.004116 -291.359406 251 137 82 
-26.731136 45.824806 -290.223755 248 132 76 
-25.893713 46.278126 -293.094818 251 123 75 
-25.333693 47.289562 -299.500549 149 116 97 
-24.987820 48.813416 -309.151642 99 70 59 
-24.803516 50.816959 -321.840759 183 143 105 
-24.730743 53.266216 -337.352722 128 139 137 
-24.715218 56.110222 -355.364746 210 186 160 
-24.692522 59.262054 -375.326355 226 203 171 
-24.583584 62.576397 -396.317169 246 224 193 
-24.293398 65.827271 -416.906036 230 204 172 
-23.727737 68.728622 -435.281281 235 211 172 
-22.869570 71.149773 -450.615204 232 208 174 
-21.745537 73.065002 -462.745026 245 222 188 
-20.395155 74.486656 -471.748810 217 192 158 
-18.865511 75.462044 -477.926300 252 238 207 
-17.205578 76.066765 -481.756165 255 245 213 
-15.461117 76.396103 -483.842010 255 249 217 
-13.670891 76.556992 -484.860931 255 251 219 
-11.864320 76.661758 -485.524475 255 251 218 
-10.060405 76.824913 -486.557770 249 229 197 
-8.266564 77.154602 -488.645782 220 195 164 
-6.470150 77.641792 -491.731354 244 220 186 
-4.653997 78.187157 -495.185333 244 221 187 
-2.810150 78.684204 -498.333282 243 223 190 
-0.940728 79.021164 -500.467346 246 224 191 
0.941475 79.083923 -500.864868 246 223 192 
2.812934 78.762146 -498.826904 248 223 192 
4.640375 77.958298 -493.735901 137 88 53 
6.383204 76.598450 -485.123505 245 223 187 
7.997419 74.642578 -472.736298 253 228 194 
9.440956 72.094574 -456.598969 241 220 182 
10.694716 69.104317 -437.660706 255 255 225 
11.776229 65.946877 -417.663574 255 255 221 
12.717940 62.841587 -397.996704 255 255 228 
13.558434 59.942551 -379.636139 204 168 140 
14.337836 57.351345 -363.225189 255 249 211 
15.095832 55.132603 -349.173157 249 223 187 
15.871673 53.328819 -337.749176 236 210 175 
16.705648 51.973125 -329.163147 143 105 78 
17.641823 51.100456 -323.636200 207 181 147 
18.732229 50.758301 -321.469238 248 221 189 
20.025976 50.975212 -322.843018 151 119 92 
21.542004 51.700806 -327.438446 249 232 199 
23.297844 52.892403 -334.985229 143 101 80 
25.313848 54.522133 -345.306854 251 233 204 
27.610764 56.568394 -358.266510 255 236 199 
30.206251 59.007561 -373.714539 255 251 216 
33.109608 61.804604 -391.429169 110 84 57 
36.314095 64.901787 -411.044617 105 69 51 
39.786331 68.205139 -431.965881 242 215 183 
43.453201 71.569977 -453.276520 246 221 190 
47.203400 74.812935 -473.815277 243 217 184 
50.956284 77.824142 -492.886261 244 218 185 
54.641029 80.523621 -509.982941 246 222 188 
58.181126 82.834145 -524.616272 202 186 131 
61.498672 84.686699 -536.349060 206 189 133 
64.519447 86.025932 -544.830872 204 186 130 
67.178093 86.814774 -549.826904 202 187 131 
69.422768 87.037498 -551.237488 201 186 127 
71.218521 86.700813 -549.105164 109 77 57 
72.549065 85.832695 -543.607056 116 79 55 
73.418716 84.481812 -535.051453 117 80 54 
73.870682 82.735168 -523.989380 117 79 56 
73.972397 80.697159 -511.082001 106 70 46 
73.795525 78.466125 -496.952118 113 73 52 
73.410538 76.129448 -482.153168 114 74 55 
72.883179 73.761292 -467.154846 112 74 53 
72.272408 71.422142 -452.340240 113 74 53 
71.629646 69.159660 -438.011169 111 74 52 
70.998978 67.010269 -424.398376 105 69 50 
70.417824 65.001068 -411.673401 108 71 52 
69.918076 63.151810 -399.961456 101 66 45 
69.527298 61.476772 -389.352875 100 64 42 
69.270042 59.986431 -379.914062 97 61 42 
69.169106 58.688942 -371.696625 102 67 47 
